# .PCD v0.7 - Point Cloud Data file format
VERSION 0.7
FIELDS x y z rgb
SIZE 4 4 4 4
TYPE F F F F
COUNT 1 1 1 1
WIDTH 1022
HEIGHT 1
VIEWPOINT 0 0 0 1 0 0 0
POINTS 1022
DATA ascii
-1.5976562 -1.8632812 0.545892 2.6471691e-38
-1.5668751 -1.8632812 0.54296875 2.8886874e-38
-1.5664062 -1.8620925 0.54296875 2.8149309e-38
-1.4960938 -1.8789062 0.45440006 2.8144998e-38
-1.4868941 -1.8789062 0.44921875 2.8332274e-38
-1.4882812 -1.8789062 0.45094824 2.72252e-38
-1.2226562 -1.9335938 0.10361791 2.7954108e-38
-1.2143581 -1.9335938 0.09765625 2.814499e-38
-1.2148438 -1.9335938 0.098282099 2.7587492e-38
-1.5675458 -1.9414062 0.53515625 2.7781269e-38
-1.5742188 -1.9346004 0.53515625 2.6309732e-38
-1.4960938 -1.9335938 0.43827176 2.8330833e-38
-1.4839493 -1.9335938 0.43359375 2.8147882e-38
-1.4882812 -1.9335938 0.43489385 2.6857143e-38
-1.2110492 -1.9726562 0.08984375 3.0353375e-38
-1.2148438 -1.9726562 0.091891289 2.7953396e-38
-1.7929688 -1.9885581 0.83203125 2.9247739e-38
-1.6080087 -1.7617188 0.62109375 2.7411727e-38
-1.6132812 -1.7617188 0.62394476 2.6670575e-38
-1.6054688 -1.7563456 0.62109375 2.8330805e-38
-1.7873138 -1.7304688 0.31640625 2.4990084e-38
-1.7929688 -1.7234504 0.31640625 3.0150144e-38
-1.2163994 -1.8632812 0.11328125 2.9245519e-38
-1.2226562 -1.8632812 0.11845398 2.8691637e-38
-1.2148438 -1.8624957 0.11328125 2.8504367e-38
-1.2070312 -1.8577623 0.11328125 3.0166733e-38
-1.5738791 -1.9492188 0.53515625 2.9072002e-38
-1.5742188 -1.9492188 0.53636956 2.7230248e-38
-1.5857742 -1.9804688 0.55078125 2.8146459e-38
-1.5898438 -1.9804688 0.55406237 2.9069129e-38
-1.2304688 -1.7929688 0.13652039 2.4450674e-38
-1.2226562 -1.7929688 0.13445807 2.7949769e-38
-1.2148438 -1.7929688 0.12914729 2.739515e-38
-1.2044969 -1.7929688 0.12890625 2.518313e-38
-1.2070312 -1.7855604 0.12890625 2.4816522e-38
-1.2070312 -1.7929688 0.13289309 3.0345393e-38
-1.1992188 -1.7871238 0.12890625 2.5002337e-38
-1.576764 -1.9023438 0.55078125 2.9991795e-38
-1.5820312 -1.9023438 0.55712008 2.7227369e-38
-1.4931595 -1.8242188 0.46484375 2.832939e-38
-1.4960938 -1.8242188 0.46610928 2.9250626e-38
-1.2382812 -1.8242188 0.13627005 2.7774033e-38
-1.2304688 -1.8242188 0.13319921 2.4083324e-38
-1.2225199 -1.8242188 0.12890625 2.9792236e-38
-1.2226562 -1.8242188 0.12895918 2.6842707e-38
-1.2070312 -1.820863 0.12890625 2.3705847e-38
-1.2382812 -1.7617188 0.15081882 3.2568208e-38
-1.2304688 -1.7617188 0.1469934 3.0535583e-38
-1.2207745 -1.7617188 0.14453125 2.6106577e-38
-1.2226562 -1.7617188 0.14580679 2.4817282e-38
-1.2083695 -1.7617188 0.14453125 2.924337e-38
-1.2054739 -1.7617188 0.14453125 3.237873e-38
-1.2070312 -1.7617188 0.14494538 2.924194e-38
-1.1992188 -1.7606037 0.14453125 2.8692362e-38
-1.1914062 -1.7547756 0.14453125 2.9801577e-38
-1.7773438 -1.8017949 0.30859375 2.5180218e-38
-1.4960938 -1.8833312 0.44921875 2.72252e-38
-1.4882812 -1.8800265 0.44921875 2.7777659e-38
-1.2166643 -1.7382812 0.14453125 2.7585323e-38
-1.2226562 -1.7382812 0.15035796 2.518751e-38
-1.2148438 -1.7360551 0.14453125 2.8139219e-38
-1.2148438 -1.7486013 0.13671875 2.9059727e-38
-1.2148438 -1.7539062 0.13990498 2.8689498e-38
-1.2070312 -1.7478634 0.13671875 2.8507994e-38
-1.1835938 -1.7528628 0.13671875 2.8883945e-38
-1.1835938 -1.7539062 0.13767862 2.9253437e-38
-1.2070233 -1.8710938 0.10546875 3.4595733e-38
-1.2070312 -1.8709801 0.10546875 2.7220066e-38
-1.2070312 -1.8710938 0.10548759 2.8511536e-38
-1.7929688 -1.8362572 0.25390625 2.7019815e-38
-1.7784389 -1.8398438 0.25390625 2.5914176e-38
-1.7773438 -1.8398438 0.25601697 2.5914176e-38
-1.7882669 -1.8007812 0.30859375 2.5179509e-38
-1.7929688 -1.7986352 0.30859375 2.5914908e-38
-1.7929688 -1.8007812 0.31601238 2.7020543e-38
-1.7787067 -1.8007812 0.30859375 2.5180218e-38
-1.7773438 -1.8002697 0.30859375 2.5913464e-38
-1.7773438 -1.8007812 0.30963159 2.5180218e-38
-1.2226562 -1.8007812 0.13579154 2.6844142e-38
-1.2148438 -1.8007812 0.13163042 2.8317106e-38
-1.206792 -1.8007812 0.12890625 2.4261174e-38
-1.2070312 -1.8007812 0.12951875 2.850148e-38
-1.7751422 -1.8710938 0.23046875 2.4810726e-38
-1.5625682 -1.8710938 0.53515625 2.8332988e-38
-1.5664062 -1.8710938 0.53827381 2.7411032e-38
-1.577414 -1.9960938 0.53515625 2.8698901e-38
-1.2095087 -1.9023438 0.09765625 3.0720717e-38
-1.2148438 -1.9023438 0.10297203 2.7587506e-38
-1.2074728 -1.9414062 0.08984375 2.7776207e-38
-1.5898438 -1.8437841 0.54296875 2.3510607e-38
-1.5898438 -1.8476562 0.54707527 2.3509898e-38
-1.5592904 -1.8476562 0.54296875 2.851882e-38
-1.2226562 -1.9804688 0.089846373 2.7397336e-38
-1.2143316 -1.9804688 0.08984375 2.8693853e-38
-1.2148438 -1.9804688 0.090091944 2.9428526e-38
-1.6557062 -1.7304688 0.68359375 2.9249166e-38
-1.6601562 -1.7304688 0.69036508 2.7037216e-38
-1.5759249 -1.9257812 0.54296875 2.7599027e-38
-1.5731232 -1.9570312 0.53515625 2.8519543e-38
-1.2382812 -1.8320312 0.13589692 2.7774747e-38
-1.2304688 -1.8320312 0.13251758 2.48216e-38
-1.2221105 -1.8320312 0.12890625 2.923691e-38
-1.2226562 -1.8320312 0.12910557 2.5736365e-38
-1.5713435 -1.8945312 0.54296875 2.6674196e-38
-1.5742188 -1.8945312 0.54562616 2.9623015e-38
-1.5699563 -1.9101562 0.53515625 2.8519543e-38
-1.7890263 -1.7773438 0.33203125 2.4812147e-38
-1.7929688 -1.7711308 0.33203125 2.6470225e-38
-1.6669713 -1.7226562 0.69921875 2.6669868e-38
-1.6679688 -1.7226562 0.70066714 2.7040094e-38
-1.2121954 -1.7226562 0.14453125 2.7959155e-38
-1.2148438 -1.7226562 0.14873362 2.7217978e-38
-1.2148438 -1.8398438 0.12662005 2.9607136e-38
-1.2020364 -1.8398438 0.12109375 2.3523603e-38
-1.6032227 -1.7539062 0.62109375 2.9985265e-38
-1.6054688 -1.751616 0.62109375 2.7587486e-38
-1.6054688 -1.7539062 0.62171793 2.8330805e-38
-1.5976562 -1.7382812 0.61734009 2.9795137e-38
-1.7795759 -1.7617188 0.32421875 2.646879e-38
-1.7851562 -1.7617188 0.32795787 2.5181644e-38
-1.7756717 -1.7617188 0.32421875 2.5912024e-38
-1.7773438 -1.7610995 0.32421875 2.5548272e-38
-1.7695312 -1.7617188 0.3297143 2.5912024e-38
-1.2304688 -1.7695312 0.14445114 2.3896772e-38
-1.2185714 -1.7695312 0.13671875 2.924122e-38
-1.2226562 -1.7695312 0.14138699 2.5184624e-38
-1.2148438 -1.7650654 0.13671875 2.9612169e-38
-1.2070312 -1.7667389 0.13671875 2.9244096e-38
-1.1992188 -1.7663487 0.13671875 3.0538411e-38
-1.1914062 -1.7660218 0.13671875 3.0542003e-38
-1.2168167 -1.9570312 0.09765625 2.8325057e-38
-1.2226562 -1.9570312 0.099092484 2.7400934e-38
-1.2148438 -1.9539324 0.09765625 2.7403101e-38
-1.2226562 -1.8085938 0.13368702 2.647536e-38
-1.2116647 -1.8085938 0.12890625 2.3519298e-38
-1.2148438 -1.8085938 0.13066602 2.9423453e-38
-1.2070312 -1.8024383 0.12890625 2.3519304e-38
-1.494033 -1.9726562 0.43359375 2.8882566e-38
-1.4960938 -1.9726562 0.43613625 2.832939e-38
-1.2382812 -1.8867188 0.11901069 2.5190405e-38
-1.2304688 -1.8867188 0.1197629 2.4266283e-38
-1.2180305 -1.8867188 0.11328125 2.8138508e-38
-1.2226562 -1.8867188 0.11508036 2.684776e-38
-1.2148438 -1.8828187 0.11328125 2.8878197e-38
-1.5742623 -1.8867188 0.55078125 2.8149326e-38
-1.5820312 -1.8867188 0.55808759 2.8701771e-38
-1.7900589 -1.7929688 0.28515625 2.5549003e-38
-1.7929688 -1.7888346 0.28515625 2.5178052e-38
-1.7929688 -1.7929688 0.28899956 2.5914908e-38
-1.2226562 -1.9492188 0.10201097 2.7769717e-38
-1.2142699 -1.9492188 0.09765625 2.6301077e-38
-1.2148438 -1.9492188 0.098382711 2.7771883e-38
-1.5913746 -1.9882812 0.55078125 2.9805248e-38
-1.5976562 -1.9882812 0.55830812 2.9988911e-38
-1.5898438 -1.9854789 0.55078125 2.9069129e-38
-1.2304688 -1.7773438 0.14123821 2.4264839e-38
-1.2168627 -1.7773438 0.13671875 2.8872438e-38
-1.2226562 -1.7773438 0.14096594 2.6290259e-38
-1.2382812 -1.7460938 0.15103483 3.0727177e-38
-1.2304688 -1.7460938 0.1507616 2.906189e-38
-1.2187657 -1.7460938 0.14453125 2.6847032e-38
-1.2226562 -1.7460938 0.15059495 2.4818728e-38
-1.2048306 -1.8554688 0.11328125 2.7586682e-38
-1.2070312 -1.8554688 0.11874318 2.9427744e-38
-1.2188909 -1.9648438 0.09765625 2.8876073e-38
-1.2226562 -1.9648438 0.099130869 2.795195e-38
-1.5751085 -1.9335938 0.54296875 2.6679229e-38
-1.5765501 -1.9648438 0.54296875 2.8331564e-38
-1.5820312 -1.9648438 0.54884195 2.6673484e-38
-1.5742188 -1.9600834 0.54296875 2.7043704e-38
-1.5471593 -1.8164062 0.52734375 2.7778374e-38
-1.5507812 -1.8164062 0.53174996 2.8884721e-38
-1.2235398 -1.9960938 0.08984375 2.7217995e-38
-1.6100035 -1.7695312 0.62890625 2.6488347e-38
-1.6132812 -1.7658762 0.62890625 2.6670575e-38
-1.6132812 -1.7695312 0.63326669 2.6301077e-38
-1.5820312 -1.8252592 0.53515625 2.6652473e-38
-1.5539839 -1.8320312 0.53515625 2.7779814e-38
-1.5585938 -1.8320312 0.54135656 2.7965649e-38
-1.7697386 -1.7695312 0.33984375 2.6280092e-38
-1.7695312 -1.7693706 0.33984375 2.5912024e-38
-1.7695312 -1.7695312 0.34005642 2.6280092e-38
-1.7773438 -1.8094275 0.30078125 2.5363881e-38
-1.5742188 -1.8085938 0.54023409 2.351135e-38
-1.5520803 -1.8085938 0.53515625 2.9252058e-38
-1.5585938 -1.8085938 0.54219794 2.9066215e-38
-1.5507812 -1.8058965 0.53515625 3.03584e-38
-1.5664062 -1.7949691 0.54296875 2.3509915e-38
-1.5664062 -1.8007812 0.5497849 2.4812184e-38
-1.5550205 -1.8007812 0.54296875 3.03584e-38
-1.2127306 -1.9257812 0.09765625 2.7958446e-38
-1.2148438 -1.9257812 0.10068822 2.8876073e-38
-1.2250135 -1.9882812 0.09765625 2.7213673e-38
-1.2304688 -1.9101562 0.10905361 2.5740684e-38
-1.2175738 -1.9101562 0.10546875 2.7958427e-38
-1.2226562 -1.9101562 0.10935736 2.7401646e-38
-1.2304688 -1.9179688 0.11027431 2.6476094e-38
-1.2174847 -1.9179688 0.10546875 2.8140666e-38
-1.2226562 -1.9179688 0.11149359 2.7030708e-38
-1.584095 -1.9726562 0.55078125 2.7593285e-38
-1.5898438 -1.9726562 0.55617046 2.8517396e-38
-1.2226562 -1.8789062 0.11984038 2.9060436e-38
-1.2133741 -1.8789062 0.11328125 3.6992836e-38
-1.2148438 -1.8789062 0.11452627 2.8878197e-38
-1.5451398 -1.8398438 0.51953125 2.870033e-38
-1.788942 -1.8320312 0.26171875 2.554684e-38
-1.7929688 -1.8283457 0.26171875 2.5913467e-38
-1.7798296 -1.8320312 0.26171875 2.646735e-38
-1.7851562 -1.8278177 0.26171875 2.5915622e-38
-1.7773438 -1.8320312 0.26909661 2.646735e-38
-1.7880636 -1.7382812 0.32421875 2.572909e-38
-1.7929688 -1.7382812 0.33135128 2.6832556e-38
-1.7796397 -1.7382812 0.32421875 2.5548291e-38
-1.7773438 -1.7376142 0.32421875 2.5361745e-38
-1.7773438 -1.7382812 0.32597923 2.5548291e-38
-1.5987545 -1.7460938 0.61328125 3.1455367e-38
-1.6054688 -1.7460938 0.61958838 2.7587486e-38
-1.5976562 -1.7445096 0.61328125 2.9795137e-38
-1.7773438 -1.8242188 0.29431033 2.5915622e-38
-1.5721321 -1.9179688 0.53515625 2.7596152e-38
-1.5742188 -1.9179688 0.53881741 2.7228804e-38
-1.6054688 -1.8789062 0.55536127 2.3509907e-38
-1.5898438 -1.8789062 0.5581851 2.9617214e-38
-1.5755907 -1.8789062 0.55078125 2.7965649e-38
-1.5820312 -1.8789062 0.55599213 2.8332259e-38
-1.5742188 -1.8760564 0.55078125 2.8517379e-38
-1.2347183 -1.7851562 0.14453125 2.5370472e-38
-1.2382812 -1.7851562 0.14856744 3.0354801e-38
-1.5949769 -1.8632812 0.55078125 2.7400166e-38
-1.5820312 -1.8632812 0.55796003 2.9250589e-38
-1.5722196 -1.8632812 0.55078125 2.962517e-38
-1.5742188 -1.8632812 0.55266666 2.9622998e-38
-1.2226562 -1.8476562 0.12806416 2.6473925e-38
-1.2148438 -1.8476562 0.12784576 2.7949055e-38
-1.2031136 -1.8476562 0.12109375 2.4449878e-38
-1.7929688 -1.9908928 0.83984375 2.9247739e-38
-1.2233455 -1.8945312 0.11328125 2.6663369e-38
-1.2304688 -1.8945312 0.11665511 2.4819456e-38
-1.2226562 -1.8932068 0.11328125 2.684776e-38
-1.2223637 -1.9726562 0.09765625 2.7953396e-38
-1.2226562 -1.9726562 0.097941637 2.7581727e-38
-1.5919759 -1.8554688 0.55078125 2.4078228e-38
-1.5898438 -1.8513299 0.55078125 2.3509898e-38
-1.5898438 -1.8554688 0.55495548 2.4078228e-38
-1.5684857 -1.8554688 0.55078125 2.8517379e-38
-1.5742188 -1.8554688 0.5546751 2.9622267e-38
-1.5664062 -1.8509027 0.55078125 2.9252772e-38
-1.7723168 -1.8476562 0.27734375 2.6463757e-38
-1.7695312 -1.8476562 0.28090405 2.6463757e-38
-1.5767796 -1.8242188 0.54296875 2.5182421e-38
-1.5742188 -1.8242188 0.54765558 2.5182421e-38
-1.5621502 -1.8242188 0.54296875 2.7042249e-38
-1.7723737 -1.8085938 0.31640625 2.5178052e-38
-1.7695312 -1.8048024 0.31640625 2.5362448e-38
-1.2233018 -1.7304688 0.15234375 2.5003845e-38
-1.2304688 -1.7304688 0.15492439 2.9247722e-38
-1.2226562 -1.7291074 0.15234375 2.4081889e-38
-1.2382812 -1.8632812 0.12704849 3.0909416e-38
-1.2264333 -1.8632812 0.12109375 2.8691637e-38
-1.2304688 -1.8632812 0.12390947 2.5371896e-38
-1.2226562 -1.8598123 0.12109375 2.9425611e-38
-1.2148438 -1.8577296 0.12109375 2.8504367e-38
-1.5830374 -1.9023438 0.55859375 2.7227369e-38
-1.6054688 -1.9804688 0.56165099 2.870033e-38
-1.5954771 -1.9804688 0.55859375 2.9069129e-38
-1.5976562 -1.9804688 0.56034565 2.7593983e-38
-1.7929688 -1.8349159 0.26171875 2.7019815e-38
-1.7760469 -1.8398438 0.26171875 2.350989e-38
-1.7773438 -1.8364378 0.26171875 2.646735e-38
-1.7695312 -1.7971315 0.31640625 2.536029e-38
-1.5737627 -1.9414062 0.54296875 2.7781269e-38
-1.5742188 -1.9393739 0.54296875 2.6679229e-38
-1.5742188 -1.9414062 0.54350996 2.7230245e-38
-1.2245233 -1.9335938 0.10546875 2.7954108e-38
-1.2304688 -1.9335938 0.11135364 2.647682e-38
-1.2226562 -1.9295075 0.10546875 2.8136341e-38
-1.5898438 -1.9960938 0.54587436 3.0174031e-38
-1.581159 -1.9960938 0.54296875 2.8332276e-38
-1.5820312 -1.9960938 0.54367423 2.9252075e-38
-1.2401898 -1.8242188 0.13671875 2.7774033e-38
-1.2460938 -1.8242188 0.14023232 2.7776207e-38
-1.2396595 -1.7617188 0.15234375 3.2568208e-38
-1.1992188 -1.7580035 0.15234375 2.8692362e-38
-1.1835938 -1.7551671 0.15234375 2.7223692e-38
-1.7897897 -1.7304688 0.32421875 2.4990084e-38
-1.7851562 -1.7248306 0.32421875 3.0336705e-38
-1.575613 -1.9492188 0.54296875 2.7230248e-38
-1.5820312 -1.9492188 0.54984665 2.6121742e-38
-1.5742188 -1.9434831 0.54296875 2.7230245e-38
-1.2382812 -1.8164062 0.13269687 2.9802339e-38
-1.2304688 -1.8164062 0.13186145 2.46365e-38
-1.218413 -1.8164062 0.12890625 2.9608559e-38
-1.2226562 -1.8164062 0.12992811 2.795049e-38
-1.2142072 -1.8164062 0.12890625 2.3705847e-38
-1.2148438 -1.81384 0.12890625 2.9423453e-38
-1.2025175 -1.8164062 0.12890625 2.4076768e-38
-1.2070312 -1.8102274 0.12890625 2.3519298e-38
-1.2070312 -1.8164062 0.13286924 2.9053214e-38
-1.6170114 -1.7617188 0.62890625 2.6670575e-38
-1.6210938 -1.7617188 0.6343329 2.7223748e-38
-1.6132812 -1.7541031 0.62890625 2.7222302e-38
-1.2226562 -1.9414062 0.10254192 2.7032152e-38
-1.2142394 -1.9414062 0.09765625 2.7776207e-38
-1.2148438 -1.9414062 0.098346472 2.7771883e-38
-1.7722604 -1.8710938 0.23828125 2.4810726e-38
-1.7773438 -1.8682166 0.23828125 2.5731231e-38
-1.7695312 -1.8710938 0.24126768 2.4810726e-38
-1.2275491 -1.7382812 0.15234375 2.518751e-38
-1.2304688 -1.7382812 0.15352678 3.0905803e-38
-1.7893035 -1.8632812 0.22265625 2.536029e-38
-1.7929688 -1.8632812 0.22891259 2.350989e-38
-1.5689449 -1.8710938 0.54296875 2.7411032e-38
-1.2314088 -1.7929688 0.13671875 2.4450674e-38
-1.2382812 -1.7929688 0.14328957 2.8510889e-38
-1.2304688 -1.7923142 0.13671875 2.4818013e-38
-1.2226562 -1.7894007 0.13671875 2.6843422e-38
-1.2254291 -1.9804688 0.09765625 2.7397336e-38
-1.2226562 -1.9733146 0.09765625 2.7581727e-38
-1.2394018 -1.8320312 0.13671875 2.7774747e-38
-1.5796019 -1.9257812 0.55078125 2.7599027e-38
-1.5820312 -1.9257812 0.55594158 2.7782693e-38
-1.2382812 -1.8007812 0.14164662 2.8142106e-38
-1.2249393 -1.8007812 0.13671875 2.6844142e-38
-1.2304688 -1.7936745 0.13671875 2.4450674e-38
-1.2304688 -1.8007812 0.13896108 2.389822e-38
-1.2226562 -1.8710938 0.12086201 2.8690922e-38
-1.2124636 -1.8710938 0.11328125 2.8511536e-38
-1.2148438 -1.8654227 0.11328125 2.9245519e-38
-1.2148438 -1.8710938 0.11669064 3.0168919e-38
-1.6608466 -1.7304688 0.69140625 2.7037216e-38
-1.5718063 -1.9101562 0.54296875 2.8519543e-38
-1.5742188 -1.9101562 0.54774165 2.8885447e-38
-1.7851562 -1.7722236 0.33984375 2.4997253e-38
-1.2382812 -1.7539062 0.15011978 3.0541345e-38
-1.2304688 -1.7539062 0.14946938 2.8324325e-38
-1.2190113 -1.7539062 0.14453125 2.8689498e-38
-1.2226562 -1.7539062 0.14967489 2.5001673e-38
-1.2084136 -1.7539062 0.14453125 2.9244827e-38
-1.2070312 -1.7530622 0.14453125 2.8507994e-38
-1.2070312 -1.7539062 0.14516139 2.7951933e-38
-1.1992188 -1.7471507 0.14453125 2.813992e-38
-1.1895686 -1.7539062 0.14453125 2.9253437e-38
-1.1914062 -1.7505155 0.14453125 2.7956961e-38
-1.1914062 -1.7539062 0.14663482 2.9801577e-38
-1.1835938 -1.7539062 0.1490047 2.7223692e-38
-1.2304688 -1.9023438 0.11148977 2.5557019e-38
-1.218502 -1.9023438 0.10546875 2.7587506e-38
-1.2226562 -1.9023438 0.10798407 2.6663369e-38
-1.2148438 -1.8988667 0.10546875 2.8876804e-38
-1.2301896 -1.9570312 0.10546875 2.7400934e-38
-1.2304688 -1.9570312 0.10570478 2.6110195e-38
-1.5735034 -1.9570312 0.54296875 2.8519543e-38
-1.5742188 -1.9529892 0.54296875 2.7230248e-38
-1.5742188 -1.9570312 0.5445714 2.7043704e-38
-1.6032166 -1.7382812 0.62109375 2.9795137e-38
-1.6054688 -1.7382812 0.62261319 2.9059749e-38
-1.5796963 -1.8945312 0.55078125 2.9623015e-38
-1.5820312 -1.8945312 0.55297756 2.8518823e-38
-1.2304688 -1.7226562 0.1560576 2.6847758e-38
-1.220161 -1.7226562 0.15234375 2.7217978e-38
-1.2226562 -1.7226562 0.15407419 2.5003119e-38
-1.5857464 -1.8476562 0.55078125 2.5367527e-38
-1.5820312 -1.842603 0.55078125 2.3509909e-38
-1.5820312 -1.8476562 0.55589485 2.9059688e-38
-1.5742188 -1.8428235 0.55078125 3.219507e-38
-1.5742188 -1.8476562 0.55349708 3.0357665e-38
-1.5649307 -1.8476562 0.55078125 2.9070553e-38
-1.5664062 -1.8451585 0.55078125 2.9435712e-38
-1.5664062 -1.8476562 0.55147433 2.8149309e-38
-1.2412661 -1.8867188 0.12109375 2.5190405e-38
-1.2460938 -1.8867188 0.1244576 3.0542076e-38
-1.2382812 -1.884395 0.12109375 2.5006014e-38
-1.2304688 -1.8848389 0.12109375 2.3896057e-38
-1.2382812 -1.8085938 0.138942 2.9618677e-38
-1.2301173 -1.8085938 0.13671875 2.647536e-38
-1.2304688 -1.8085938 0.13687372 2.3530153e-38
-1.2382812 -1.8398438 0.13499331 2.9987442e-38
-1.2304688 -1.8398438 0.13305593 2.4084035e-38
-1.2210989 -1.8398438 0.12890625 2.9607136e-38
-1.2226562 -1.8398438 0.12996221 2.7764664e-38
-1.2131579 -1.8398438 0.12890625 2.7027065e-38
-1.2010577 -1.8398438 0.12890625 2.3523614e-38
-1.2070312 -1.8331434 0.12890625 2.4076788e-38
-1.2070312 -1.8398438 0.13399959 2.7210758e-38
-1.6835938 -1.7152401 0.70703125 2.6304684e-38
-1.6835938 -1.7226562 0.70999551 2.72252e-38
-1.672356 -1.7226562 0.70703125 2.7040094e-38
-1.6757812 -1.7226562 0.71199727 2.6673467e-38
-1.6210938 -1.7539062 0.63633513 2.8514487e-38
-1.6131442 -1.7539062 0.62890625 2.8330805e-38
-1.6132812 -1.7534344 0.62890625 2.740381e-38
-1.6132812 -1.7539062 0.62903476 2.7222302e-38
-1.5979619 -1.9882812 0.55859375 2.9988911e-38
-1.5976562 -1.9871866 0.55859375 2.7593983e-38
-1.2256985 -1.9492188 0.10546875 2.7769717e-38
-1.2304688 -1.9492188 0.11018968 2.6110195e-38
-1.7879641 -1.7617188 0.33203125 2.5181644e-38
-1.7929688 -1.7597415 0.33203125 2.554756e-38
-1.2305837 -1.7695312 0.14453125 2.3896772e-38
-1.2382812 -1.7695312 0.14989686 3.0539904e-38
-1.2304688 -1.7693356 0.14453125 2.4449945e-38
-1.2226562 -1.7640084 0.14453125 2.4817282e-38
-1.2070312 -1.7621014 0.14453125 2.924337e-38
-1.6054688 -1.8807939 0.55859375 2.3509907e-38
-1.5854321 -1.8867188 0.55859375 2.8701771e-38
-1.5898438 -1.8819032 0.55859375 2.9617214e-38
-1.5898438 -1.8867188 0.55924988 2.9249163e-38
-1.5796251 -1.9335938 0.55078125 2.6679229e-38
-1.5820312 -1.9335938 0.55494142 2.7229519e-38
-1.2282307 -1.9648438 0.10546875 2.795195e-38
-1.2304688 -1.9648438 0.10800934 2.5923646e-38
-1.2460938 -1.9960938 0.10317302 3.0539192e-38
-1.2382812 -1.9960938 0.10420847 2.3897509e-38
-1.2288759 -1.9960938 0.09765625 2.6109483e-38
-1.2304688 -1.9960938 0.099232197 2.4634353e-38
-1.5535864 -1.8164062 0.53515625 2.8884721e-38
-1.5585938 -1.8164062 0.54123211 2.7039363e-38
-1.2333689 -1.7773438 0.14453125 2.4264839e-38
-1.2382812 -1.7773438 0.15010071 3.0537746e-38
-1.2393253 -1.7460938 0.15234375 3.0727177e-38
-1.2382812 -1.7445451 0.15234375 3.0542785e-38
-1.2304688 -1.7411785 0.15234375 3.0905803e-38
-1.2304688 -1.8554688 0.12870407 2.4081157e-38
-1.2226562 -1.8554688 0.1244669 2.7212925e-38
-1.2094077 -1.8554688 0.12109375 2.9427744e-38
-1.2148438 -1.8554688 0.12370443 2.9425611e-38
-1.2070312 -1.8549384 0.12109375 2.9609983e-38
-1.2460938 -1.9882812 0.11193633 2.722015e-38
-1.2382812 -1.9882812 0.10805106 2.9800187e-38
-1.2302655 -1.9882812 0.10546875 2.7213673e-38
-1.2304688 -1.9882812 0.1057291 2.4263413e-38
-1.5838447 -1.9648438 0.55078125 2.6673484e-38
-1.5898438 -1.9648438 0.55719352 2.8148614e-38
-1.5820312 -1.9611479 0.55078125 2.7411049e-38
-1.5466026 -1.8398438 0.52734375 2.9439336e-38
-1.5507812 -1.8398438 0.53297591 2.7412472e-38
-1.2378187 -1.9179688 0.11328125 2.6476094e-38
-1.2382812 -1.9179688 0.11346984 2.7585334e-38
-1.2460938 -1.9101562 0.11901951 3.0542797e-38
-1.238093 -1.9101562 0.11328125 2.5740684e-38
-1.2382812 -1.9101562 0.11338568 2.7400943e-38
-1.2382812 -1.9257812 0.11201358 2.7216551e-38
-1.2304688 -1.9257812 0.10921168 2.6106597e-38
-1.2206157 -1.9257812 0.10546875 2.8876073e-38
-1.2226562 -1.9257812 0.10857415 2.8134901e-38
-1.2460938 -1.8789062 0.12805676 3.1463321e-38
-1.2382812 -1.8789062 0.1249814 3.0908701e-38
-1.2241421 -1.8789062 0.12109375 2.9060436e-38
-1.2304688 -1.8789062 0.12642217 2.3896057e-38
-1.5820312 -1.8297908 0.54296875 2.6652473e-38
-1.5820312 -1.8320312 0.54683042 2.3509904e-38
-1.5605764 -1.8320312 0.54296875 2.7965649e-38
-1.5751455 -1.9179688 0.54296875 2.7228804e-38
-1.5742188 -1.9160033 0.54296875 2.8885447e-38
-1.5918664 -1.9726562 0.55859375 2.8517396e-38
-1.5976562 -1.9726562 0.5655272 2.7228084e-38
-1.6175879 -1.7695312 0.63671875 2.6301077e-38
-1.6210938 -1.7653066 0.63671875 2.7223748e-38
-1.6210938 -1.7695312 0.63952732 2.8143547e-38
-1.7851562 -1.8257349 0.26953125 2.5915622e-38
-1.7772036 -1.8320312 0.26953125 2.350989e-38
-1.7773438 -1.8319155 0.26953125 2.5361002e-38
-1.7929688 -1.9932275 0.84765625 2.9247739e-38
-1.5606439 -1.8007812 0.55078125 3.016532e-38
-1.558302 -1.8007812 0.55078125 3.03584e-38
-1.5585938 -1.8000345 0.55078125 2.7580951e-38
-1.5585938 -1.8007812 0.5512836 3.016532e-38
-1.607074 -1.7460938 0.62109375 2.7587486e-38
-1.6132812 -1.7460938 0.62691045 2.740381e-38
-1.6054688 -1.7422055 0.62109375 2.9059749e-38
-1.7681582 -1.8476562 0.28515625 2.6463031e-38
-1.7929688 -1.7364473 0.33203125 2.6280097e-38
-1.7745994 -1.7382812 0.33203125 2.4809286e-38
-1.5702639 -1.8085938 0.54296875 2.9798713e-38
-1.5593079 -1.8085938 0.54296875 2.9066215e-38
-1.5664062 -1.8085938 0.54893112 2.5552644e-38
-1.5585938 -1.8074145 0.54296875 2.9617214e-38
-1.7695312 -1.7939517 0.32421875 2.536029e-38
-1.2460938 -1.9726562 0.11189842 2.8143547e-38
-1.2382812 -1.9726562 0.10664272 2.9798029e-38
-1.2285252 -1.9726562 0.10546875 2.7581727e-38
-1.2304688 -1.9726562 0.10795736 2.5922206e-38
-1.2460938 -1.8945312 0.1256907 3.0357685e-38
-1.237855 -1.8945312 0.12109375 2.4819456e-38
-1.2382812 -1.893584 0.12109375 2.5190405e-38
-1.2382812 -1.8945312 0.12135029 2.9616522e-38
-1.2417006 -1.7851562 0.15234375 3.0354801e-38
-1.2460938 -1.7851562 0.15819192 2.7961308e-38
-1.2382812 -1.8476562 0.13400674 2.8882538e-38
-1.2242401 -1.8476562 0.12890625 2.6473925e-38
-1.2304688 -1.8476562 0.1322217 2.5189671e-38
-1.2226562 -1.8437231 0.12890625 2.7764664e-38
-1.2139711 -1.8476562 0.12890625 2.9609983e-38
-1.2033305 -1.8476562 0.12890625 2.3522894e-38
-1.2070312 -1.8476562 0.13417983 2.961e-38
-1.7742696 -1.8398438 0.26953125 2.350989e-38
-1.7697455 -1.8085938 0.32421875 2.5178052e-38
-1.7695312 -1.8083079 0.32421875 2.5362448e-38
-1.7695312 -1.8085938 0.32485557 2.5178052e-38
-1.5693464 -1.8242188 0.55078125 3.090506e-38
-1.5636377 -1.8242188 0.55078125 2.8330096e-38
-1.5664062 -1.8242188 0.55266833 3.090506e-38
-1.6054688 -1.9023438 0.57386565 2.3511356e-38
-1.588375 -1.9023438 0.56640625 2.7227369e-38
-1.5898438 -1.899631 0.56640625 2.7961313e-38
-1.5826696 -1.9492188 0.55078125 2.6121742e-38
-1.5820312 -1.9468348 0.55078125 2.6122457e-38
-1.6012833 -1.8789062 0.55859375 2.8318513e-38
-1.5908372 -1.8789062 0.55859375 2.9617214e-38
-1.5976562 -1.8762555 0.55859375 2.5550472e-38
-1.5976562 -1.8789062 0.56139565 2.8318513e-38
-1.5898438 -1.878122 0.55859375 3.0354042e-38
-1.5820312 -1.8722285 0.55859375 2.8514482e-38
-1.6076672 -1.9804688 0.56640625 2.870033e-38
-1.6132812 -1.9804688 0.57385039 3.0173302e-38
-1.6054688 -1.9782553 0.56640625 2.796205e-38
-1.2360809 -1.7304688 0.16015625 2.9247722e-38
-1.2382812 -1.7304688 0.16329575 2.7965632e-38
-1.6236525 -1.7617188 0.63671875 2.7223748e-38
-1.2425184 -1.7617188 0.16015625 3.0172562e-38
-1.2460938 -1.7617188 0.1630621 2.9805935e-38
-1.1914062 -1.7549076 0.16015625 3.1458217e-38
-1.5935315 -1.9960938 0.55078125 3.0174031e-38
-1.5976562 -1.9960938 0.55626535 2.9066234e-38
-1.5906971 -1.8632812 0.55859375 2.7400166e-38
-1.584289 -1.8632812 0.55859375 2.9250589e-38
-1.5898438 -1.8609382 0.55859375 2.4078228e-38
-1.5898438 -1.8632812 0.56015182 2.7400166e-38
-1.5820312 -1.8582116 0.55859375 3.1275998e-38
-1.7922659 -1.7304688 0.33203125 2.4990084e-38
-1.2405021 -1.8632812 0.12890625 3.0909416e-38
-1.2460938 -1.8632812 0.13346243 2.9436449e-38
-1.2382812 -1.8603206 0.12890625 2.8882538e-38
-1.5802616 -1.9414062 0.55078125 2.7230245e-38
-1.5820312 -1.9414062 0.55290937 2.6122457e-38
-1.7851562 -1.8600808 0.23046875 2.5729073e-38
-1.2377819 -1.9335938 0.11328125 2.647682e-38
-1.2382812 -1.9325678 0.11328125 2.7216551e-38
-1.2382812 -1.9335938 0.11341262 2.7587492e-38
-1.7696779 -1.8164062 0.31640625 2.6836132e-38
-1.7695312 -1.8164062 0.31684184 2.6836132e-38
-1.5976562 -1.8685547 0.55078125 2.6471691e-38
-1.5976562 -1.8710938 0.55313516 2.5550472e-38
-1.5721673 -1.8710938 0.55078125 2.7228084e-38
-1.5742188 -1.8710938 0.55271578 2.8517379e-38
-1.2460938 -1.9804688 0.11305261 2.8326497e-38
-1.2382812 -1.9804688 0.10803509 2.8876073e-38
-1.2295897 -1.9804688 0.10546875 2.7397336e-38
-1.2304688 -1.9804688 0.10684991 2.6106597e-38
-1.5827038 -1.8554688 0.55859375 3.1275998e-38
-1.5814023 -1.8554688 0.55859375 2.9622267e-38
-1.5820312 -1.8542032 0.55859375 2.9059688e-38
-1.5820312 -1.8554688 0.5589366 3.1275998e-38
-1.7773438 -1.8641744 0.24609375 2.5731231e-38
-1.7695312 -1.8690174 0.24609375 2.4071715e-38
-1.7929688 -1.9882812 0.83110499 2.9247739e-38
-1.5836939 -1.9257812 0.55859375 2.7782693e-38
-1.2249389 -1.9414062 0.10546875 2.7032152e-38
-1.2304688 -1.9414062 0.11254907 2.5003848e-38
-1.2442751 -1.8164062 0.13671875 2.9802339e-38
-1.2460938 -1.8164062 0.13898015 2.7591816e-38
-1.2382812 -1.8111823 0.13671875 2.9432845e-38
-1.2304688 -1.8088217 0.13671875 2.3713829e-38
-1.2382812 -1.8710938 0.12740231 2.9986745e-38
-1.2229879 -1.8710938 0.12109375 2.8690922e-38
-1.2304688 -1.8710938 0.12630749 2.5003119e-38
-1.2386012 -1.7929688 0.14453125 2.8510889e-38
-1.2460938 -1.7929688 0.15171838 2.9065503e-38
-1.2382812 -1.7924159 0.14453125 3.0354801e-38
-1.5774504 -1.9101562 0.55078125 2.8885447e-38
-1.5820312 -1.9101562 0.55508709 2.7596866e-38
-1.6662282 -1.7304688 0.69921875 2.7037216e-38
-1.6679688 -1.7304688 0.70174503 2.7222322e-38
-1.2356412 -1.7382812 0.16015625 3.0905803e-38
-1.2382812 -1.7382812 0.16353488 3.0176169e-38
-1.2357907 -1.9570312 0.11328125 2.6110195e-38
-1.2382812 -1.9570312 0.11682129 2.8142106e-38
-1.2438112 -1.8320312 0.14453125 2.740886e-38
-1.2460938 -1.8273629 0.14453125 2.7776207e-38
-1.2460938 -1.8320312 0.14704633 2.8883275e-38
-1.23259 -1.9023438 0.11328125 2.5557019e-38
-1.2382812 -1.9023438 0.11807966 2.5741421e-38
-1.2304688 -1.8998365 0.11328125 2.6108752e-38
-1.6107061 -1.7382812 0.62890625 2.9059749e-38
-1.6132812 -1.7382812 0.63199949 2.7587486e-38
-1.2407717 -1.8007812 0.14453125 2.8142106e-38
-1.2460938 -1.8007812 0.14963555 2.9803068e-38
-1.5867039 -1.8945312 0.55859375 2.8518823e-38
-1.5898438 -1.8945312 0.56236553 2.7961313e-38
-1.2408572 -1.8398438 0.13671875 2.9987442e-38
-1.580014 -1.9570312 0.55078125 2.7043704e-38
-1.5820312 -1.9515778 0.55078125 2.6121742e-38
-1.5820312 -1.9570312 0.55294132 2.7411049e-38
-1.2408295 -1.7695312 0.15234375 3.0539904e-38
-1.2460938 -1.7695312 0.15973783 2.9252761e-38
-1.2341352 -1.9492188 0.11328125 2.6110195e-38
-1.2382812 -1.9492188 0.1167717 2.8142106e-38
-1.244427 -1.8085938 0.14453125 2.9618677e-38
-1.2460938 -1.8085938 0.14588785 2.7223748e-38
-1.2460938 -1.9938747 0.10546875 2.722015e-38
-1.2382812 -1.9932045 0.10546875 2.408118e-38
-1.2304688 -1.9887285 0.10546875 2.4263413e-38
-1.6027751 -1.9882812 0.56640625 2.9988911e-38
-1.6054688 -1.9836438 0.56640625 2.870033e-38
-1.6054688 -1.9882812 0.57066584 2.8147156e-38
-1.2333348 -1.7226562 0.16015625 2.6847758e-38
-1.2382812 -1.7226562 0.16721869 3.035912e-38
-1.2304688 -1.7152524 0.16015625 2.8507279e-38
-1.6909295 -1.7226562 0.71484375 2.72252e-38
-1.6914062 -1.7226562 0.71515822 2.7407433e-38
-1.6213565 -1.7539062 0.63671875 2.8514487e-38
-1.6210938 -1.7529172 0.63671875 2.6669128e-38
-1.9960938 -1.9276738 0.78515625 5.6426651e-38
-1.2460938 -1.9648438 0.11982989 2.8888314e-38
-1.2367188 -1.9648438 0.11328125 2.5923646e-38
-1.2382812 -1.9648438 0.11459708 2.8509448e-38
-1.5850735 -1.9335938 0.55859375 2.7229519e-38
-1.5898438 -1.9335938 0.56431699 2.6857858e-38
-1.5952199 -1.8867188 0.56640625 2.9249163e-38
-1.5976562 -1.8836496 0.56640625 2.8318513e-38
-1.5976562 -1.8867188 0.56895494 2.6654656e-38
-1.2400562 -1.7539062 0.15234375 3.0541345e-38
-1.2028116 -1.7539062 0.15234375 2.8692362e-38
-1.1938788 -1.7539062 0.15234375 2.9801577e-38
-1.1992188 -1.7497725 0.15234375 2.813992e-38
-1.1992188 -1.7539062 0.15627217 2.9244096e-38
-1.1872822 -1.7539062 0.15234375 2.7223692e-38
-1.1914062 -1.7539062 0.15733695 3.1458217e-38
-1.1835938 -1.7516351 0.15234375 2.9066178e-38
-1.1835938 -1.7539062 0.15779281 3.0542003e-38
-1.5742188 -1.813132 0.54296875 2.351135e-38
-1.5742188 -1.8164062 0.54862666 2.3509918e-38
-1.5598862 -1.8164062 0.54296875 2.7039363e-38
-1.2460938 -1.9065461 0.12109375 3.0173294e-38
-1.2460938 -1.8773987 0.12890625 2.9988903e-38
-1.5898438 -1.8398438 0.53878808 2.3510607e-38
-1.5525792 -1.8398438 0.53515625 2.7412472e-38
-1.5585938 -1.8398438 0.54244542 2.7412475e-38
-1.2403109 -1.7773438 0.15234375 3.0537746e-38
-1.2460938 -1.7773438 0.1576798 2.7959867e-38
-1.5910125 -1.9648438 0.55859375 2.8148614e-38
-1.5898438 -1.9627078 0.55859375 2.7596152e-38
-1.2391849 -1.9257812 0.11328125 2.7216551e-38
-1.2382812 -1.919363 0.11328125 2.7585334e-38
-1.2460938 -1.8554688 0.13563943 2.9990337e-38
-1.2309656 -1.8554688 0.12890625 2.4081157e-38
-1.2382812 -1.8554688 0.13173342 3.0910127e-38
-1.2304688 -1.8551108 0.12890625 2.5186064e-38
-1.2070312 -1.8523835 0.12890625 2.9609983e-38
-1.5796609 -1.9179688 0.55078125 2.7228804e-38
-1.5820312 -1.9179688 0.55488062 2.9256385e-38
-1.2408367 -1.7460938 0.16015625 2.9623707e-38
-1.2460938 -1.7460938 0.16443539 2.7411727e-38
-1.2382812 -1.7431141 0.16015625 3.0176169e-38
-1.246004 -1.9179688 0.12109375 2.7585334e-38
-1.2460938 -1.9173968 0.12109375 3.0542797e-38
-1.2460938 -1.9179688 0.12118244 3.0542076e-38
-1.625792 -1.7695312 0.64453125 2.8143547e-38
-1.6289062 -1.7695312 0.64784622 3.05435e-38
-1.6145327 -1.7460938 0.62890625 2.740381e-38
-1.6132812 -1.743029 0.62890625 2.7587486e-38
-1.7929688 -1.9955623 0.85546875 2.9247739e-38
-1.7929688 -1.9960938 0.85724688 2.8510889e-38
-1.7746823 -1.8320312 0.27734375 2.350989e-38
-1.7773438 -1.8298341 0.27734375 2.5361002e-38
-1.5984874 -1.9726562 0.56640625 2.7228084e-38
-1.6054688 -1.9726562 0.57378316 2.796205e-38
-1.5976562 -1.9659355 0.56640625 2.7965649e-38
-1.2460938 -1.9710722 0.11328125 2.9066946e-38
-1.2382812 -1.9663488 0.11328125 2.8509448e-38
-1.7656353 -1.8476562 0.29296875 2.6463031e-38
-1.7655001 -1.8007812 0.33203125 2.664671e-38
-1.7929688 -1.9804688 0.83009577 2.9800913e-38
-1.5769219 -1.8320312 0.55078125 2.4817968e-38
-1.5742188 -1.828899 0.55078125 2.5182421e-38
-1.5742188 -1.8320312 0.55287266 2.4817968e-38
-1.5626881 -1.8320312 0.55078125 2.7963477e-38
-1.5664062 -1.8320312 0.55478954 3.0723561e-38
-1.7710574 -1.7382812 0.33984375 2.4809286e-38
-1.7695312 -1.7382812 0.3432107 2.4809286e-38
-1.5585938 -1.8027425 0.55078125 3.016532e-38
-1.2434493 -1.8476562 0.13671875 2.8882538e-38
-1.5880091 -1.9492188 0.55859375 2.6121742e-38
-1.5898438 -1.9492188 0.56127715 2.7780543e-38
-1.7708106 -1.8398438 0.27734375 2.350989e-38
-1.7695312 -1.8398438 0.28180504 2.350989e-38
-1.5992526 -1.9960938 0.55859375 2.9066234e-38
-1.6274984 -1.7617188 0.64453125 2.7223748e-38
-1.6289062 -1.7617188 0.64677215 2.9807387e-38
-1.7695312 -1.8092147 0.32421875 2.5178052e-38
-1.2440224 -1.7304688 0.16796875 2.7965632e-38
-1.2460938 -1.7304688 0.17000556 2.8699571e-38
-1.7695312 -1.8656558 0.25390625 2.4071715e-38
-1.7796546 -1.8632812 0.23828125 2.5731231e-38
-1.7851562 -1.8584023 0.23828125 2.5729073e-38
-1.6134959 -1.9804688 0.57421875 3.0173302e-38
-1.6132812 -1.9800698 0.57421875 2.9249911e-38
-1.5862992 -1.9414062 0.55859375 2.6122457e-38
-1.5898438 -1.9414062 0.56331229 2.7043693e-38
-1.2460661 -1.9335938 0.12109375 2.7587492e-38
-1.2460938 -1.9335938 0.12112093 2.7779086e-38
-1.5885947 -1.9257812 0.56640625 2.7782693e-38
-1.5898438 -1.9183166 0.56640625 2.7964206e-38
-1.6050773 -1.9023438 0.57421875 2.5555539e-38
-1.5976562 -1.9023438 0.58091545 2.5555539e-38
-1.5892384 -1.9023438 0.57421875 2.7227369e-38
-1.5898438 -1.9023438 0.57565403 3.0356937e-38
-1.2460938 -1.7920753 0.15234375 2.722159e-38
-1.2460938 -1.9414062 0.11957598 2.9071265e-38
-1.2366577 -1.9414062 0.11328125 2.5003848e-38
-1.2382812 -1.9414062 0.11347318 2.7035759e-38
-1.2460938 -1.8110317 0.14453125 2.7223748e-38
-1.5840611 -1.9101562 0.55859375 2.7596866e-38
-1.5929794 -1.8710938 0.55859375 3.0354042e-38
-1.5898438 -1.8710938 0.56225491 3.0354042e-38
-1.5814844 -1.8710938 0.55859375 2.8517379e-38
-1.5820312 -1.8678824 0.55859375 2.9250589e-38
-1.5820312 -1.8710938 0.55903578 2.8514482e-38
-1.240793 -1.8710938 0.12890625 2.9986745e-38
-1.2460938 -1.8710938 0.13245797 2.9988903e-38
-1.7728243 -1.7929688 0.31640625 2.536029e-38
-1.7695312 -1.7893295 0.31640625 2.350989e-38
-1.2460197 -1.9570312 0.12109375 2.8142106e-38
-1.2460938 -1.9570312 0.12113452 2.8888314e-38
-1.2437314 -1.7382812 0.16796875 3.0176169e-38
-1.2460938 -1.7382812 0.17078376 2.7591065e-38
-1.6835938 -1.7304688 0.71311426 2.7960599e-38
-1.671978 -1.7304688 0.70703125 2.7222322e-38
-1.6757812 -1.7304688 0.71204329 2.7591816e-38
-1.9960938 -1.9294672 0.79296875 5.6426651e-38
-1.2446967 -1.8398438 0.14453125 2.6671295e-38
-1.2460938 -1.8398438 0.14607024 2.9254216e-38
-1.2460938 -1.7688321 0.16015625 2.9805935e-38
-1.6165066 -1.7382812 0.63671875 2.7587486e-38
-1.6210938 -1.7382812 0.64342785 2.8697432e-38
-1.2437315 -1.9023438 0.12109375 2.5741421e-38
-1.2460938 -1.9023438 0.12235522 3.0174014e-38
-1.2382812 -1.8952113 0.12109375 2.6663377e-38
-1.5867412 -1.9570312 0.55859375 2.7411049e-38
-1.5898438 -1.9570312 0.56231546 2.7596152e-38
-1.6954851 -1.7226562 0.72265625 2.7407433e-38
-1.7929688 -1.7226562 0.31438589 3.0150144e-38
-1.2460938 -1.9573239 0.12109375 2.8888314e-38
-1.6054688 -1.8945312 0.57384157 2.3510627e-38
-1.5921862 -1.8945312 0.56640625 2.7961313e-38
-1.5898438 -1.8945312 0.57354021 3.1827014e-38
-1.2444857 -1.9492188 0.12109375 2.8142106e-38
-1.2460938 -1.94517 0.12109375 2.9071265e-38
-1.2460938 -1.9492188 0.12221241 2.9257097e-38
-1.6255087 -1.7539062 0.64453125 2.8514487e-38
-1.6289062 -1.7539062 0.65083575 2.8888314e-38
-1.6092777 -1.9882812 0.57421875 2.8147156e-38
-1.6132812 -1.9811708 0.57421875 3.0173302e-38
-1.6132812 -1.9882812 0.57795143 2.9437895e-38
-1.6210938 -1.9335938 0.57397413 2.6284433e-38
-1.5937046 -1.9335938 0.56640625 2.6857858e-38
-1.5898438 -1.9295933 0.56640625 2.8517379e-38
-1.2392021 -1.7226562 0.16796875 3.035912e-38
-1.2460938 -1.7226562 0.17403841 2.8330788e-38
-1.2382812 -1.7208118 0.16796875 3.1281076e-38
-1.597537 -1.9648438 0.56640625 2.8148614e-38
-1.5976562 -1.9648438 0.56681061 2.7410317e-38
-1.5845675 -1.9179688 0.55859375 2.9256385e-38
-1.5898438 -1.9179688 0.56631351 2.7964206e-38
-1.7909113 -1.9882812 0.83984375 2.3509968e-38
-1.2460938 -1.8519533 0.13671875 2.8332257e-38
-1.245331 -1.9257812 0.12109375 2.6849927e-38
-1.2460938 -1.9257812 0.12217546 2.9067667e-38
-1.6317379 -1.7695312 0.65234375 3.05435e-38
-1.5714355 -1.8164062 0.55078125 2.7768234e-38
-1.5593159 -1.8164062 0.55078125 3.0170393e-38
-1.5664062 -1.8115525 0.55078125 2.5552644e-38
-1.5664062 -1.8164062 0.55467606 2.7768234e-38
-1.7922853 -1.9804688 0.83203125 2.9428509e-38
-1.2460938 -1.7410308 0.16796875 2.7964901e-38
-1.6194327 -1.7460938 0.63671875 2.740381e-38
-1.6210938 -1.7460938 0.63936615 2.6669128e-38
-1.6059356 -1.9726562 0.57421875 2.796205e-38
-1.6132812 -1.9726562 0.58106637 2.9249911e-38
-1.6054688 -1.9719913 0.57421875 2.9068398e-38
-1.7631129 -1.8476562 0.30078125 2.6463031e-38
-1.7617188 -1.8476562 0.30510068 2.6463031e-38
-1.5866275 -1.8398438 0.54296875 2.3509909e-38
-1.5820312 -1.8398438 0.54894495 2.3509909e-38
-1.5742188 -1.8398438 0.54879618 3.219507e-38
-1.5598525 -1.8398438 0.54296875 2.7412475e-38
-1.5664062 -1.8398438 0.54734468 2.9435712e-38
-1.2456512 -1.8476562 0.14453125 2.8332257e-38
-1.2460938 -1.8476562 0.14508295 2.9069825e-38
-1.7695312 -1.8375673 0.28515625 2.350989e-38
-1.7721612 -1.8320312 0.28515625 2.350989e-38
-1.7773438 -1.8277528 0.28515625 2.5361002e-38
-1.2436601 -1.7539062 0.16015625 2.9620829e-38
-1.2460938 -1.7539062 0.16284299 2.759396e-38
-1.1930401 -1.7539062 0.16015625 3.1458217e-38
-1.1867756 -1.7539062 0.16015625 3.0542003e-38
-1.1914062 -1.7528962 0.16015625 2.813992e-38
-1.1914062 -1.7539062 0.16337681 3.1458217e-38
-1.7851562 -1.8554688 0.25193453 2.5729073e-38
-1.6027895 -1.9960938 0.56640625 2.9066234e-38
-1.6054688 -1.9960938 0.57169628 2.9622998e-38
-1.7862788 -1.9960938 0.86328125 2.500456e-38
-1.7929688 -1.9960938 0.86486197 2.7958446e-38
-1.7851562 -1.9960938 0.86379361 2.8510889e-38
-1.7773438 -1.9960938 0.86863613 2.500456e-38
-1.6331068 -1.7617188 0.65234375 2.9807387e-38
-1.6367188 -1.7617188 0.65713239 2.9254925e-38
-1.5953292 -1.9492188 0.56640625 2.7780543e-38
-1.5976562 -1.9492188 0.57089639 2.7223771e-38
-1.7773438 -1.8632812 0.24782038 2.5731231e-38
-1.9960938 -1.9185948 0.76953125 6.5644785e-38
-1.9960938 -1.9257812 0.77691126 5.6426651e-38
-1.6180493 -1.9804688 0.58203125 3.0173302e-38
-1.6210938 -1.9804688 0.58725262 3.0357685e-38
-1.2460938 -1.9337929 0.12109375 2.7779086e-38
-1.6289062 -1.9414062 0.56695938 2.3509915e-38
-1.5931528 -1.9414062 0.56640625 2.7043693e-38
-1.5892303 -1.9101562 0.56640625 2.7412475e-38
-1.5898438 -1.9101562 0.5674262 2.9436443e-38
-1.9960938 -1.9312607 0.80078125 5.6426651e-38
-1.6210938 -1.9257812 0.57803893 2.3509904e-38
-1.5976562 -1.9257812 0.5797236 2.8879671e-38
-1.5897404 -1.9257812 0.57421875 2.7782693e-38
-1.5898438 -1.925472 0.57421875 2.8883275e-38
-1.5898438 -1.9257812 0.57446361 2.9066957e-38
-1.7617188 -1.8007812 0.35510135 2.664671e-38
-1.7703089 -1.7929688 0.32421875 2.536029e-38
-1.7695312 -1.7921093 0.32421875 2.350989e-38
-1.7695312 -1.7929688 0.32663417 2.536029e-38
-1.692101 -1.7226562 0.73046875 2.8145705e-38
-1.6850543 -1.7304688 0.71484375 2.7960599e-38
-1.6914062 -1.7304688 0.72236347 2.6118853e-38
-1.5942197 -1.9570312 0.56640625 2.7596152e-38
-1.5976562 -1.9570312 0.57303429 2.7225926e-38
-1.6222737 -1.7382812 0.64453125 2.8697432e-38
-1.6289062 -1.7382812 0.65072989 2.9070553e-38
-1.789072 -1.9882812 0.84765625 2.3509968e-38
-1.6307898 -1.7539062 0.65234375 2.8888314e-38
-1.6367188 -1.7539062 0.65708828 2.8887583e-38
-1.2460938 -1.8488365 0.14453125 2.9069825e-38
-1.6209222 -1.9335938 0.57421875 3.219363e-38
-1.6210938 -1.9331239 0.57421875 2.3509904e-38
-1.6054688 -1.9335938 0.57987237 2.8879654e-38
-1.5972254 -1.9335938 0.57421875 2.9067683e-38
-1.5976562 -1.9335938 0.57462192 2.8513061e-38
-1.5898438 -1.9260485 0.57421875 2.9066957e-38
-1.6176651 -1.9882812 0.58203125 2.9437895e-38
-1.6210938 -1.9882812 0.5852201 2.8883275e-38
-1.5900702 -1.9179688 0.56640625 2.7964206e-38
-1.5898438 -1.9172366 0.56640625 2.8332988e-38
-1.7695312 -1.8322612 0.29296875 2.350989e-38
-1.6445312 -1.9648438 0.57639956 2.3511336e-38
-1.6004568 -1.9648438 0.57421875 2.7410317e-38
-1.6054688 -1.9648438 0.57889891 2.9068398e-38
-1.6047266 -1.8945312 0.57421875 2.3892397e-38
-1.5976562 -1.8918008 0.57421875 2.6654656e-38
-1.5976562 -1.8945312 0.57781506 2.3892397e-38
-1.5897049 -1.8945312 0.57421875 2.8518823e-38
-1.5898438 -1.8940464 0.57421875 3.1455339e-38
-1.5898438 -1.8945312 0.57460308 3.1827014e-38
-1.7895261 -1.9804688 0.83984375 2.9428509e-38
-1.7929688 -1.9784214 0.83984375 2.9617962e-38
-1.6363461 -1.7695312 0.66015625 3.0174718e-38
-1.6367188 -1.7684349 0.66015625 2.9254925e-38
-1.6367188 -1.7695312 0.66064978 3.0725736e-38
-1.7846104 -1.8554688 0.25390625 2.3510613e-38
-1.7851562 -1.8543742 0.25390625 2.5729073e-38
-1.5742188 -1.8360391 0.55078125 2.4817968e-38
-1.5664062 -1.8371257 0.55078125 3.0723561e-38
-1.6445312 -1.9672413 0.58203125 2.3511336e-38
-1.6141903 -1.9726562 0.58203125 2.9249911e-38
-1.6132812 -1.9708128 0.58203125 2.9802359e-38
-1.6259359 -1.7460938 0.64453125 2.6669128e-38
-1.6289062 -1.7460938 0.64769816 2.9071994e-38
-1.6423643 -1.7617188 0.66015625 2.9254925e-38
-1.7696404 -1.8320312 0.29296875 2.350989e-38
-1.7773438 -1.8256717 0.29296875 2.5361002e-38
-1.7695312 -1.8320312 0.2932024 2.350989e-38
-1.6210938 -1.9960938 0.57807589 2.9252772e-38
-1.6101412 -1.9960938 0.57421875 2.9622998e-38
-1.6132812 -1.9960938 0.57591295 2.8516651e-38
-1.7732463 -1.8632812 0.25390625 2.4071715e-38
-1.7773438 -1.8618107 0.25390625 2.3510613e-38
-1.9960938 -1.9335938 0.81094384 5.4216821e-38
-1.7851562 -1.7226562 0.32985973 3.0336705e-38
-1.6226068 -1.9804688 0.58984375 3.0357685e-38
-1.6210938 -1.9738278 0.58984375 2.9066946e-38
-1.6289062 -1.9456723 0.57421875 2.3509915e-38
-1.6289062 -1.9492188 0.58025289 2.3509918e-38
-1.6006311 -1.9492188 0.57421875 2.7223771e-38
-1.6054688 -1.9492188 0.57683444 2.9251346e-38
-1.5976562 -1.9461392 0.57421875 2.796061e-38
-1.7881049 -1.9960938 0.87109375 2.8510889e-38
-1.7735127 -1.9960938 0.87109375 2.90561e-38
-1.7695312 -1.9960938 0.87878132 2.90561e-38
-1.6238072 -1.9414062 0.57421875 2.6471719e-38
-1.6210938 -1.9340584 0.57421875 2.6284433e-38
-1.6210938 -1.9414062 0.57808232 2.6471719e-38
-1.6054688 -1.9414062 0.57989097 2.9436443e-38
-1.5950128 -1.9414062 0.57421875 2.7594711e-38
-1.5976562 -1.9414062 0.57669163 2.796061e-38
-1.6210938 -1.7929688 0.63499188 3.0351887e-38
-1.6950781 -1.7226562 0.73828125 2.8145705e-38
-1.6132812 -1.9101562 0.57581115 2.3509912e-38
-1.6054688 -1.9038577 0.57421875 2.3511356e-38
-1.6054688 -1.9101562 0.57568765 3.0345376e-38
-1.596224 -1.9101562 0.57421875 2.9436443e-38
-1.5976562 -1.9101562 0.57555985 2.8877485e-38
-1.5898438 -1.9038568 0.57421875 3.0356937e-38
-1.6915777 -1.7304688 0.72265625 2.6118853e-38
-1.6914062 -1.7304688 0.72314882 2.8885433e-38
-1.6309199 -1.7382812 0.65234375 2.9070553e-38
-1.6367188 -1.7382812 0.65698862 2.9070534e-38
-1.6172273 -1.9257812 0.58203125 2.7396556e-38
-1.6132812 -1.9206179 0.58203125 2.4257569e-38
-1.6132812 -1.9257812 0.58610749 2.7396556e-38
-1.6019272 -1.9257812 0.58203125 2.8879671e-38
-1.6054688 -1.922879 0.58203125 3.2377295e-38
-1.6054688 -1.9257812 0.58394384 3.090506e-38
-1.7872329 -1.9882812 0.85546875 2.3509968e-38
-1.7851562 -1.9825711 0.85546875 2.9428509e-38
-1.7851562 -1.9667752 0.85546875 3.0720689e-38
-1.7851562 -1.9726562 0.85925746 2.9797292e-38
-1.6054688 -1.7773438 0.62601447 2.961866e-38
-1.5976562 -1.7773438 0.62281895 3.0534834e-38
-1.6367188 -1.9570312 0.57934952 2.3509904e-38
-1.5983707 -1.9570312 0.57421875 2.7225926e-38
-1.6054688 -1.9570312 0.57991648 2.8515224e-38
-1.9960938 -1.9179688 0.76897526 6.5644785e-38
-1.6132812 -1.9179688 0.57993937 2.4257569e-38
-1.6054688 -1.9179688 0.57879496 3.2377295e-38
-1.597222 -1.9179688 0.57421875 2.8883275e-38
-1.5976562 -1.9179688 0.57456851 2.9247722e-38
-1.6424444 -1.7539062 0.66015625 2.8887583e-38
-1.6445312 -1.7539062 0.66118574 2.9068381e-38
-1.6240163 -1.9882812 0.58984375 2.8883275e-38
-1.6154389 -1.9335938 0.58203125 3.219363e-38
-1.60869 -1.9335938 0.58203125 2.8879654e-38
-1.6132812 -1.9335938 0.58510709 3.219363e-38
-1.6054688 -1.929451 0.58203125 3.090506e-38
-1.6401728 -1.9648438 0.58203125 2.4807136e-38
-1.6367188 -1.959963 0.58203125 2.3509904e-38
-1.6367188 -1.9648438 0.58386707 2.3511336e-38
-1.6093791 -1.9648438 0.58203125 2.9068398e-38
-1.6132812 -1.9648438 0.58515501 2.9802359e-38
-1.7867672 -1.9804688 0.84765625 2.9428509e-38
-1.7929688 -1.9767805 0.84765625 2.9617962e-38
-1.7851562 -1.9804688 0.85221958 2.9428509e-38
-1.782447 -1.8554688 0.26171875 2.3510613e-38
-1.7851562 -1.8500365 0.26171875 2.5729073e-38
-1.6347059 -1.7460938 0.65234375 2.9071994e-38
-1.6367188 -1.7460938 0.65395546 2.9072689e-38
-1.6417542 -1.7695312 0.66796875 3.0725736e-38
-1.6445312 -1.7695312 0.67200375 2.888327e-38
-1.6445312 -1.9726562 0.59370136 2.3509904e-38
-1.6367188 -1.9688309 0.58984375 2.3511336e-38
-1.620779 -1.9726562 0.58984375 2.7591827e-38
-1.6210938 -1.9726562 0.5903008 2.9066946e-38
-1.6437722 -1.7617188 0.66796875 3.0727177e-38
-1.6445312 -1.7608641 0.66796875 2.9068381e-38
-1.6445312 -1.7617188 0.66887283 2.9436443e-38
-1.7731968 -1.8632812 0.26171875 2.3509898e-38
-1.7773438 -1.8599229 0.26171875 2.3510613e-38
-1.6522393 -1.9960938 0.58203125 2.8688758e-38
-1.6228623 -1.9960938 0.58203125 2.9252772e-38
-1.6210938 -1.9917686 0.58203125 2.8883275e-38
-1.6210938 -1.7851562 0.64103055 2.9246991e-38
-1.6132812 -1.7795843 0.63671875 2.7405253e-38
-1.6445312 -1.9760207 0.59765625 2.3509904e-38
-1.6445312 -1.9804688 0.60288477 2.3509907e-38
-1.6254904 -1.9804688 0.59765625 3.0357685e-38
-1.7851562 -1.9648438 0.85422444 3.0720689e-38
-1.6252265 -1.7929688 0.63671875 3.0351887e-38
-1.6210938 -1.7909716 0.63671875 2.9432113e-38
-1.7897023 -1.9960938 0.87890625 2.8510889e-38
-1.7695312 -1.9957702 0.87890625 2.4075378e-38
-1.6254117 -1.9492188 0.58203125 3.1084404e-38
-1.6210938 -1.9464248 0.58203125 2.6471719e-38
-1.6210938 -1.9492188 0.58422947 3.1084404e-38
-1.6103561 -1.9492188 0.58203125 2.9251346e-38
-1.6132812 -1.9492188 0.58513999 2.8510157e-38
-1.6172682 -1.9414062 0.58203125 3.109018e-38
-1.60814 -1.9414062 0.58203125 2.9436443e-38
-1.6132812 -1.9414062 0.58614874 3.109018e-38
-1.2460938 -1.7382812 0.20588493 3.0155203e-38
-1.7226562 -1.7226562 0.74924946 2.3509907e-38
-1.6980565 -1.7226562 0.74609375 2.8145705e-38
-1.6992188 -1.7226562 0.74914217 2.8330805e-38
-1.9960938 -1.916412 0.76953125 5.7538755e-38
-1.6898409 -1.7304688 0.73046875 2.7960599e-38
-1.6914062 -1.7249646 0.73046875 2.8145705e-38
-1.6914062 -1.7304688 0.73481536 2.8885433e-38
-1.6081795 -1.7773438 0.62890625 2.961866e-38
-1.6132812 -1.7773438 0.63434577 2.7405253e-38
-1.7851562 -1.987627 0.86328125 2.9428509e-38
-1.7773438 -1.9882812 0.86891484 2.3509968e-38
-1.6391075 -1.7382812 0.66015625 2.9070534e-38
-1.6445312 -1.7382812 0.66734505 2.8331525e-38
-1.6367188 -1.7321874 0.66015625 2.9805946e-38
-1.6501002 -1.7539062 0.66796875 2.9068381e-38
-1.6523438 -1.7539062 0.6709342 2.7408145e-38
-1.7890683 -1.9726562 0.86328125 2.9797292e-38
-1.7839068 -1.9726562 0.86328125 2.7209301e-38
-1.7773438 -1.9726562 0.8682003 2.9797292e-38
-1.6445312 -1.9882812 0.59983921 2.4622745e-38
-1.6266559 -1.9882812 0.59765625 2.8883275e-38
-1.6289062 -1.9882812 0.60268521 2.8691653e-38
-1.6348349 -1.9570312 0.58203125 2.5364657e-38
-1.6289062 -1.9505779 0.58203125 2.3509918e-38
-1.6074582 -1.9570312 0.58203125 2.8515224e-38
-1.6132812 -1.9570312 0.58821845 2.9248454e-38
-1.6425548 -1.7460938 0.66015625 2.9072689e-38
-1.6445312 -1.7460938 0.66225505 2.7962743e-38
-1.6486081 -1.7695312 0.67578125 2.888327e-38
-1.6523438 -1.7695312 0.67924023 2.7225912e-38
-1.7802839 -1.8554688 0.26953125 2.3510613e-38
-1.7929688 -1.9751396 0.85546875 2.9617962e-38
-1.7851562 -1.9768622 0.85546875 2.9797292e-38
-1.6292325 -1.9648438 0.58984375 3.0346839e-38
-1.6289062 -1.9648438 0.5902276 2.4807136e-38
-1.6191485 -1.9648438 0.58984375 2.9802359e-38
-1.6210938 -1.9648438 0.59139752 3.0721412e-38
